104.08001709 23.42224121 -78.36006927
101.09729767 24.89201355 -78.08316040
102.20986938 24.28304291 -78.18196869
104.44618225 23.09646225 -78.38846588
101.50496674 24.57999611 -78.16291809
102.68945313 23.95408630 -78.11238861
103.74792480 23.39975357 -78.27562714
103.01965332 23.71247292 -78.18741608
100.69962311 24.86234665 -77.95285797
101.84445190 24.22453690 -78.19157410
104.09426117 23.03776550 -78.31880188
103.40194702 23.39032555 -78.26604462
101.10872650 24.55407333 -78.09025574
102.26290131 23.92510605 -78.15690613
104.44364929 22.75576401 -78.47075653
102.67707062 23.65098763 -78.10168457
101.51271820 24.24928284 -78.13894653
103.79461670 23.03308487 -78.24536896
100.71851349 24.54858971 -78.04046631
104.12265015 22.74376869 -78.20135498
102.99628448 23.32685280 -78.25062561
101.94700623 23.86629105 -78.12477112
101.12507629 24.21458054 -78.10978699
103.43629456 23.00868988 -78.23672485
102.32854462 23.56996918 -78.06244659
103.87223816 22.70991707 -78.25882721
104.45576477 22.40608597 -78.58404541
102.65184021 23.30474854 -78.10301208
101.49399567 23.90716743 -78.11107635
100.78962708 24.19739151 -78.16651917
102.01701355 23.53942108 -78.03604889
104.15108490 22.42592239 -78.27919769
103.05677795 22.95551109 -78.21244049
101.14753723 23.89285278 -78.16924286
103.47754669 22.65378952 -78.19597626
102.36005402 23.22830772 -77.99784851
100.41195679 24.18734550 -78.06919098
103.83110046 22.39158440 -78.22521973
102.67782593 22.96140671 -78.12319946
101.47570801 23.55301857 -78.08688354
102.09767151 23.21068192 -77.93602753
100.81179047 23.86693573 -78.15942383
103.12779236 22.61188698 -78.16180420
103.51297760 22.34112358 -78.13119507
104.15827942 22.00474548 -78.41121674
102.34960938 22.93695831 -78.05090332
101.11550903 23.52291489 -78.08138275
100.38490295 23.83624840 -78.05660248
102.73665619 22.58079720 -78.15401459
102.10449982 22.89890289 -78.00181580
103.82752228 22.00791359 -78.30197144
101.48725128 23.21234512 -78.06777954
103.17126465 22.30810928 -78.06396484
100.79205322 23.53073502 -78.14292145
102.01589203 22.83157158 -78.20313263
100.06378174 23.82343674 -78.10854340
102.37059021 22.60809517 -78.06688690
103.51858521 21.97569656 -78.15007019
101.14978027 23.19115448 -78.12361145
100.45271301 23.48993111 -78.10487366
102.85490417 22.23109436 -78.05690765
103.89341736 21.66784096 -78.23157501
101.75796509 22.75754356 -77.98571777
102.03855896 22.60517311 -78.00791168
101.52257538 22.86968231 -78.09608459
100.80877686 23.20744133 -78.09105682
103.16746521 21.94028854 -78.10511017
100.08946228 23.48976517 -78.16372681
102.48131561 22.20804214 -78.12325287
103.56156921 21.63341522 -78.12683868
101.17256165 22.86061287 -78.11679077
101.79423523 22.50009537 -78.01733398
102.82835388 21.94861984 -77.99933624
100.45602417 23.16737938 -78.17407990
101.59645081 22.55636215 -78.13512421
103.90328217 21.31525230 -78.27268982
102.05026245 22.23043823 -78.08037567
103.18505859 21.60129547 -78.13044739
100.79566956 22.84139633 -78.11157227
102.53607178 21.91710281 -78.02158356
100.13293457 23.14379883 -78.25302887
101.75756836 22.27402306 -77.97054291
103.57344055 21.27757072 -78.16190338
101.18725586 22.51190376 -78.12677765
101.61263275 27.51741791 -78.36200714
98.54210663 29.13476181 -79.38644409
98.29640198 29.23850441 -79.44908142
100.41751099 28.07269669 -78.47219086
101.16246033 27.65282822 -78.28294373
99.38378906 28.57670021 -78.64720917
99.78025055 28.28479958 -78.59909058
97.90611267 29.27446747 -79.45510101
98.27503967 29.05283165 -79.43217468
100.14247894 27.99953842 -78.51118469
100.75205231 27.62250900 -78.22979736
99.05732727 28.46469498 -78.64440155
101.18969727 27.34050560 -78.36922455
99.39288330 28.25828171 -78.65367126
98.78552246 28.52360916 -78.81459045
97.93127441 28.95791626 -79.51522064
98.45486450 28.61762238 -79.08113098
100.37973022 27.59696007 -78.26834869
99.07869720 28.27481842 -78.70030212
99.73450470 27.91721153 -78.54384613
101.41281128 26.98041153 -78.03868103
98.16976929 28.68546867 -79.33762360
100.75524139 27.28521729 -78.19547272
100.07443237 27.57833481 -78.41239929
99.42762756 27.91991043 -78.64878845
98.77066040 28.25585556 -78.78550720
97.56964874 28.88480759 -79.64254761
101.04894257 26.97095490 -78.06565094
97.85728455 28.62192345 -79.45417023
100.40444946 27.25840569 -78.31833649
98.44430542 28.27185440 -79.05699921
99.10989380 27.91718483 -78.81735992
99.74663544 27.57680893 -78.54748535
101.42696381 26.61099625 -78.09004211
100.70515442 26.94416809 -78.12961578
97.50807190 28.61120987 -79.70478058
98.83045959 27.90626526 -78.99456024
99.44039154 27.57981491 -78.65306091
100.06446075 27.24742889 -78.38668823
98.15791321 28.24755478 -79.16457367
100.38809967 26.93145943 -78.26357269
99.74437714 27.26516342 -78.54257202
101.04668427 26.57656479 -78.12269592
97.83055878 28.26913834 -79.44841766
98.47344208 27.91259384 -78.97539520
99.09845734 27.57504272 -78.69957733
97.52277374 28.33695602 -79.62155914
99.44610596 27.24653244 -78.57279968
100.06369019 26.91674042 -78.34947968
98.12107086 27.93595886 -79.16964722
98.77077484 27.58783913 -78.82188416
97.24791718 28.38638687 -79.80911255
100.69867706 26.54008484 -78.10692596
97.85743713 27.97960281 -79.37294769
99.73190308 26.97014618 -78.44212341
100.37834167 26.57574844 -78.20198822
100.97534943 26.25523186 -78.05020905
99.09207153 27.24683762 -78.65631866
98.46836090 27.55881119 -78.94662476
99.45137787 26.99630737 -78.52888489
100.07053375 26.61834908 -78.24314880
97.56543732 27.94174004 -79.50620270
98.76217651 27.25951576 -78.80485535
100.68782043 26.22448730 -78.12174225
98.14012146 27.55496979 -79.03228760
97.25128937 27.90611076 -79.65080261
98.46912384 27.23538589 -78.92881012
97.83808899 27.54089355 -79.18805695
99.06919098 26.86713791 -78.56808472
100.34086609 26.18412018 -78.09257507
99.68365479 26.52777100 -78.25394440
97.51862335 27.59625244 -79.48744202
96.93154907 27.90319061 -79.81567383
100.69811249 25.88954163 -78.05522919
98.15294647 27.20482063 -79.00741577
100.00659180 26.19377136 -78.09602356
98.74653625 26.85793304 -78.63729095
99.36204529 26.50794983 -78.31937408
97.17478943 27.65811920 -79.81646729
98.40162659 26.94939804 -78.91165161
96.96984863 27.71701431 -79.90894318
100.37503052 25.87836838 -78.12560272
99.65423584 26.23381042 -78.26188660
97.82006073 27.19485474 -79.10784149
99.04395294 26.51973343 -78.44396210
98.11416626 26.89924622 -78.99069977
100.71740723 25.52056885 -77.99166107
99.96453857 25.88510895 -78.12664032
97.49177551 27.19421768 -79.20461273
99.38668060 26.18686295 -78.44990540
98.73521423 26.51388550 -78.61745453
100.38437653 25.53111839 -78.15554810
97.19615936 27.21559906 -79.41718292
97.82501984 26.86856270 -79.16461945
98.41221619 26.52637863 -78.71823120
99.08084869 26.15810394 -78.52009583
100.74471283 25.26192856 -78.16869354
99.65642548 25.82284927 -78.04901886
96.89131165 27.24339867 -79.60143280
100.08578491 25.50445175 -78.23888397
98.10699463 26.51866913 -78.92375183
99.33189392 25.86553955 -78.29367065
97.53049469 26.82001114 -79.24618530
98.73793793 26.16101074 -78.65424347
100.41522217 25.22259521 -78.06626892
99.00453949 25.96272850 -78.56478119
97.26000977 26.86103058 -79.32941437
99.71044922 25.50230408 -78.21823883
97.78878784 26.50696373 -79.09594727
98.77963257 25.97790337 -78.64322662
98.41086578 26.16574478 -78.78797913
100.04409790 25.18265152 -78.21760559
97.49173737 26.52444458 -79.22075653
99.37466431 25.50461769 -78.25385284
98.07234955 26.19778061 -79.03585815
96.79384613 26.85267639 -79.15296936
98.45486450 25.91288376 -78.76842499
100.35439301 24.88014412 -78.10489655
99.82497406 25.14086151 -78.38334656
96.45882416 26.88434029 -79.41367340
97.84976196 26.15227509 -79.19866943
99.01809692 25.47677803 -78.29299164
97.58940125 26.19937515 -79.25539398
98.10334778 25.90125656 -78.90111542
99.39888763 25.15593719 -78.22986603
99.81632233 24.93854141 -78.24977112
97.80877686 25.97628784 -79.16915131
98.70692444 25.43044853 -78.37752533
96.74153137 26.45645523 -79.01888275
100.37497711 24.53526688 -78.10382080
97.24185181 26.17390633 -79.28042603
100.07023621 24.60855103 -78.16482544
98.41321564 25.47073364 -78.55989075
97.55891418 25.89356613 -79.27037811
96.43360901 26.46555328 -79.19763184
99.01056671 25.10169220 -78.28134918
99.43662262 24.81931496 -78.19274902
98.08361816 25.48624420 -78.72764587
96.84031677 26.14506912 -79.29322815
99.77634430 24.55809021 -78.17388153
98.72495270 25.10754395 -78.50016785
97.23385620 25.84220123 -79.36285400
97.77215576 25.52204514 -78.92179108
98.45080566 25.13086700 -78.73305511
99.01637268 24.80422020 -78.31736755
96.47900391 26.12247467 -79.27480316
99.38159180 24.53048706 -78.18462372
100.04710388 24.18105698 -78.08478546
97.48162842 25.52612686 -79.13540649
96.91200256 25.82345200 -79.48262787
98.68572235 24.83097458 -78.51431274
96.16725159 26.14442062 -79.51997375
98.11124420 25.08604050 -78.74747467
99.75852966 24.18310356 -78.19379425
97.20312500 25.50032806 -79.31657410
99.05832672 24.50227737 -78.32604218
96.53579712 25.84076881 -79.47386169
98.37543488 24.81956482 -78.69794464
97.79219055 25.12107468 -78.90696716
96.90393066 25.48733521 -79.47498322
98.72474670 24.50238419 -78.45394135
96.23204041 25.80796051 -79.58366394
99.37767029 24.13570976 -78.17086792
97.48503113 25.13117027 -79.09966278
98.10548401 24.74226570 -78.86593628
99.73169708 23.82723618 -78.19530487
96.61344910 25.46589088 -79.69090271
95.94169617 25.81057549 -79.77837372
99.05607605 24.14535522 -78.33976746
97.18167114 25.13046074 -79.31790161
97.82611847 24.78020287 -79.02613831
98.13034821 24.55142021 -78.89933777
96.29665375 25.48679352 -79.78846741
96.89877319 25.13226700 -79.52032471
98.75745392 24.12397385 -78.45991516
99.41032410 23.77127838 -78.24469757
97.51254272 24.76583862 -79.21458435
96.62570190 25.15762711 -79.74905396
95.98696899 25.49025726 -79.92539978
99.74283600 23.48094559 -78.21273804
97.82489014 24.47883224 -78.99926758
97.20378113 24.80189133 -79.37385559
98.45114136 24.12670708 -78.58654785
99.07305908 23.78723526 -78.37284851
96.32247162 25.14738083 -79.82323456
97.49929047 24.51178741 -79.19435120
96.92440796 24.79965973 -79.53091431
98.14598083 24.14615250 -78.86844635
99.41119385 23.46636772 -78.28375244
98.75344086 23.79424477 -78.57657623
97.53382874 29.66111183 -79.61704254
95.15332031 30.88604736 -80.01982880
94.18258667 31.36716843 -80.12951660
96.88864136 29.95256424 -79.83128357
96.23885345 30.28104782 -79.97982025
95.59182739 30.59910202 -80.13594055
93.92980957 31.43204308 -80.05742645
95.92707062 30.32493973 -80.05521393
96.59477997 29.94388199 -79.91687775
94.79968262 30.86897850 -79.99418640
97.25219727 29.58354187 -79.74212646
95.23316956 30.55872536 -80.14279175
96.92616272 29.60775757 -79.84687042
97.50901794 29.26125145 -79.46038818
96.26800537 29.91629028 -79.98416138
95.57324219 30.25975800 -80.05876160
94.43682861 30.82295036 -79.95526886
93.67424011 31.21654320 -80.05731964
93.97923279 31.01893806 -80.01118469
94.88259125 30.55161285 -80.17801666
96.57051086 29.60620880 -79.91770172
97.20219421 29.27395630 -79.79011536
95.25308228 30.23548126 -80.16483307
94.10952759 30.82545471 -79.99905396
95.86509705 29.89429092 -79.90698242
96.27958679 29.61355209 -80.07563782
94.47770691 30.54258156 -80.11820221
93.57986450 30.93638611 -79.97815704
95.54666138 29.87894058 -80.01416016
94.89173889 30.21467590 -80.15359497
97.26576996 28.90248871 -79.78497314
96.60769653 29.24452019 -79.90588379
94.13459015 30.51266861 -80.10788727
93.40422821 30.83401871 -80.03362274
95.24884796 29.87304878 -80.14201355
95.93783569 29.51177597 -80.04810333
93.66240692 30.62921715 -79.99634552
94.51565552 30.18779182 -80.11614990
96.93563843 28.91214561 -79.86834717
96.24928284 29.25995255 -79.95026398
94.87704468 29.86686707 -80.11465454
95.59005737 29.49478912 -80.24068451
97.25582886 28.61095238 -79.85028839
96.62861633 28.90008736 -79.96879578
94.17265320 30.16629410 -80.11586761
95.89373779 29.23139572 -80.05072784
95.31623840 29.51749039 -80.20629120
93.41000366 30.50111389 -80.00024414
97.03519440 28.57202911 -79.92984772
94.54533386 29.83948898 -80.16177368
96.31150055 28.86689186 -80.02561951
95.62045288 29.20321846 -80.11656952
93.69342041 30.19853973 -80.00928497
95.05015564 29.49212265 -80.31457520
93.76634979 30.13607788 -79.98426819
96.62119293 28.59183884 -79.91992950
94.22457886 29.81988907 -80.13098145
93.06898499 30.40404701 -79.98937988
95.30508423 29.23884773 -80.18337250
96.96753693 28.35803223 -79.90976715
93.38032532 30.21967316 -80.05342865
95.90969849 28.90112686 -80.09862518
96.31062317 28.67355728 -80.03870392
94.63981628 29.51160431 -80.17390442
95.61801910 28.94157028 -80.17938995
94.98280334 29.22848511 -80.27736664
95.99156952 28.69129562 -80.08319855
93.79530334 29.80112076 -80.05284882
94.24430084 29.52372360 -80.15888214
95.37519073 28.93401718 -80.25520325
93.14405060 30.06478691 -80.05609894
95.67474365 28.68672943 -80.18354797
93.43345642 29.80430794 -80.10630035
94.61975098 29.19003105 -80.24639893
95.02217102 28.88065338 -80.29936218
96.27484131 28.21987915 -79.94993591
93.14566803 29.77081680 -80.22090912
96.64733887 27.90589142 -79.96371460
94.18264771 29.14747238 -80.16857910
95.28251648 28.56975555 -80.14388275
94.59765625 28.85476494 -80.32405090
93.54136658 29.39429855 -80.21266174
95.84185791 28.14312363 -79.75949860
96.32301331 27.88231277 -80.01399994
94.94490814 28.55865860 -80.27880096
96.73034668 27.61558342 -79.96666718
92.78945160 29.60324478 -80.05192566
95.57388306 28.15054512 -79.88948059
94.22200012 28.85987473 -80.32524109
93.20731354 29.37662125 -80.16424561
95.92179871 27.88614845 -79.94963837
95.28527069 28.18496132 -80.11314392
94.65738678 28.49853897 -80.35320282
93.59826660 29.01751709 -80.36533356
96.36064911 27.56890488 -80.03303528
93.87699127 28.83789444 -80.28471375
95.60942841 27.86605453 -80.02702332
96.58935547 27.32651520 -79.83993530
94.94770813 28.18764877 -80.25610352
92.84685516 29.27420807 -80.13040924
94.30339050 28.49024963 -80.40533447
93.26835632 29.00960922 -80.26995850
95.98948669 27.52552223 -80.09217834
95.31602478 27.85523224 -80.24802399
94.60713196 28.17859268 -80.32630157
96.29898071 27.25234222 -79.90346527
93.94606018 28.48415756 -80.42219543
92.48475647 29.23250198 -80.18933105
92.88479614 28.95856094 -80.25722504
95.62956238 27.51458740 -80.21524048
93.31767273 28.72231483 -80.47809601
94.37154388 28.16175270 -80.42723846
94.97352600 27.81490517 -80.29167175
95.96222687 27.22324181 -79.94550323
93.57916260 28.45485306 -80.41318512
95.34230804 27.48646927 -80.36959839
94.66865540 27.81934166 -80.41414642
92.49571228 28.91425323 -80.34202576
93.93623352 28.16565323 -80.42110443
96.16365051 26.95587158 -79.79180908
92.93797302 28.62966156 -80.36104584
93.34223175 28.42304611 -80.59786224
95.03288269 27.49857140 -80.35916901
95.53868103 27.21495056 -79.97863770
95.28301239 27.34878922 -80.23878479
94.31829834 27.81944275 -80.45952606
94.68901062 27.53218842 -80.43843079
93.61340332 28.09010315 -80.54115295
95.97807312 26.83185387 -79.86919403
92.51630402 28.60786057 -80.49913025
95.03905487 27.26774025 -80.27522278
94.00802612 27.78049660 -80.67635345
95.19383240 27.13823128 -80.13028717
93.00181580 28.28419685 -80.44113159
93.31207275 28.11299133 -80.56966400
95.59964752 26.87345314 -79.81992340
94.36415100 27.50959778 -80.50491333
92.24580383 28.60201645 -80.51348877
96.12145996 26.51921654 -79.56164551
95.87028503 26.64094162 -79.87625885
93.72021484 27.74100494 -80.77848816
92.54278564 28.33060455 -80.68807983
94.85606384 27.08909988 -80.21645355
93.98159790 27.52198029 -80.62057495
93.33410645 27.83510590 -80.62275696
93.86833191 27.47993851 -80.70832825
95.65188599 26.51993179 -79.82581329
94.58600616 27.07078362 -80.26599884
92.25949860 28.28719521 -80.67369080
95.26559448 26.66016960 -79.74954224
92.60681152 28.03188324 -80.75621796
94.96373749 26.78252602 -80.10674286
93.80369568 27.33200073 -80.35042572
95.92052460 26.15992355 -79.76438904
93.32194519 27.49932098 -80.49625397
92.84011841 27.73894501 -80.19532776
95.24658966 26.48006248 -79.91439056
92.97288513 27.64472008 -80.83242035
91.93049622 28.17789459 -80.55224609
94.62274933 26.75344849 -80.23915863
94.17339325 26.96737671 -80.40029144
92.31388855 27.92920685 -80.69543457
95.03678894 26.47874832 -80.02203369
95.57836914 26.12741852 -79.82012177
92.40241241 27.78753662 -80.81152344
93.49174500 27.20447922 -80.41765594
92.92603302 27.47321320 -80.78227997
93.86547852 26.92943573 -80.35225677
92.86192322 27.40548134 -80.78380585
91.99943542 27.80350113 -80.51402283
92.35716248 27.61325836 -80.96072388
93.48274994 26.99119377 -80.20819092
94.19598389 26.62247849 -80.38070679
92.80833435 27.32614136 -80.30290985
94.63645172 26.37287903 -80.23903656
92.90397644 27.25839615 -80.89757538
92.94732666 27.22816849 -81.12229156
92.36096191 27.42429352 -80.69539642
93.89799500 26.60839462 -80.43312836
92.12701416 27.51055527 -80.66973114
91.63452148 27.73972511 -80.43544769
95.33193970 25.77851868 -80.15194702
93.15493774 26.88253403 -80.40251923
94.24105072 26.29963684 -80.29339600
93.53186035 26.61690140 -80.21218872
94.66593933 25.99543762 -80.19644165
92.75619507 26.97032928 -80.20366669
94.91386414 25.83060455 -80.10149384
93.90545654 26.33789635 -80.03607941
92.38475800 32.34639740 -79.48580170
91.59574890 32.71947479 -79.57790375
90.86849213 33.08924484 -79.71800995
91.94223022 32.49340057 -79.70980835
92.78721619 32.03343201 -79.49232483
93.14393616 31.83488846 -79.75119019
89.60852051 33.66194153 -79.27553558
91.12619019 32.81668854 -79.62905884
93.55520630 31.53916359 -79.90565491
90.47821045 33.01358795 -79.53269958
89.88199615 33.30535889 -79.55311584
92.83087158 31.74667931 -79.70339203
91.68186951 32.34076691 -79.57848358
92.46882629 31.90705490 -79.42186737
93.22154999 31.49634552 -79.80814362
90.90571594 32.65348053 -79.64398956
89.54335022 33.29800797 -79.51028442
89.58306122 33.26301956 -79.37112427
92.09280396 31.91927147 -79.42606354
91.26289368 32.29858398 -79.54203033
92.49839783 31.65482712 -79.55725098
89.82045746 33.03072357 -79.73603058
92.90277100 31.41003036 -79.75135040
89.32508850 33.23084259 -79.42377472
91.66494751 32.01430511 -79.55019379
93.33143616 31.13402939 -79.89678192
90.49649811 32.55498505 -79.63325500
89.78643799 32.92544556 -79.72518158
92.11885071 31.63406754 -79.62892151
90.76606750 32.31102753 -79.72694397
90.04026794 32.64102936 -79.82221985
92.53735352 31.32213402 -79.68424225
91.35784912 31.89774704 -79.54399109
92.95308685 31.06735992 -79.81444550
90.56349182 32.26594162 -79.74780273
89.37459564 32.85696030 -79.53473663
89.79323578 32.62629700 -79.77042389
91.80352020 31.54170227 -79.55221558
90.88842010 32.02002716 -79.83274078
89.23261261 32.86998749 -79.81616211
92.19893646 31.25199699 -79.68930817
90.16725159 32.30173111 -79.82730865
89.16679382 32.77889252 -79.64820862
92.58705902 30.99982452 -79.80807495
90.03868866 32.31917953 -79.85088348
89.40910339 32.60923004 -79.71362305
93.01348114 30.73421097 -79.91677856
91.46731567 31.47336006 -79.49507904
90.64785004 31.87958527 -79.74954987
91.86039734 31.21818542 -79.67345428
90.92851257 31.68229675 -79.86238861
92.23725891 30.93571472 -79.76879883
89.64056396 32.28717422 -80.10403442
89.61059570 32.27059937 -79.60570526
92.63890076 30.67691040 -79.90806580
90.20659637 31.91902733 -79.87945557
91.48669434 31.14836121 -79.75647736
91.95426178 30.87655830 -79.75845337
89.26034546 32.26216125 -79.39569092
90.66506958 31.54112244 -79.86532593
92.29716492 30.60553360 -79.85948944
89.72860718 31.93253326 -80.04709625
89.50720215 32.03614426 -80.08386230
92.71255493 30.34143829 -79.92143250
91.16210175 31.12747192 -79.69667816
91.42962646 30.96698761 -80.00090790
90.32559204 31.51141357 -79.88269043
90.68145752 31.23533249 -79.98817444
88.96525574 32.10618973 -79.47670746
91.96285248 30.53253937 -79.80116272
89.05839539 31.99036789 -79.84036255
92.35386658 30.25777054 -79.88247681
91.17650604 30.86113167 -79.93081665
89.91731262 31.51002502 -79.96293640
92.75991058 30.00474358 -79.99419403
90.39643097 31.23067856 -80.03778076
91.58490753 30.53508949 -79.89647675
90.82398987 30.83740616 -79.98927307
88.72590637 31.90111542 -79.74601746
91.99662781 30.19242096 -79.87305450
89.21008301 31.61534500 -80.18243408
91.26693726 30.50177765 -79.96531677
92.40618896 29.89939880 -79.94847870
90.05662537 31.11175919 -79.96195221
90.41712952 30.87927246 -80.13861847
89.60511780 31.24460030 -80.24863434
91.63864136 30.16683769 -79.92183685
92.05201721 29.85964775 -79.97045898
90.78794098 30.50944901 -80.20320129
88.73106384 31.52284241 -79.65358734
92.45599365 29.57094193 -80.05751038
90.10822296 30.78359604 -80.09133911
91.25146484 30.17514610 -80.07926941
89.21611023 31.21829224 -80.14899445
89.31385803 31.14749908 -80.28067017
90.47505188 30.52197838 -80.17697144
91.67984772 29.83769608 -80.02906036
88.41495514 31.52611542 -79.79474640
90.81350708 30.28640556 -80.25836182
88.92763519 31.20667648 -80.23122406
89.61584473 30.82363892 -80.25935364
92.09402466 29.52872467 -80.07514954
91.32122803 29.82713699 -80.11523438
90.10600281 30.44893074 -80.30426025
89.39082336 30.80284882 -80.32063293
90.53228760 30.16571999 -80.27462006
91.73721313 29.50785065 -80.13282013
88.50637817 31.18244171 -79.92147064
89.73534393 30.50471878 -80.32720184
90.96971130 29.82018661 -80.21029663
92.14279938 29.20292091 -80.19913483
90.08984375 30.20061874 -80.47195435
91.37498474 29.51224899 -80.23931122
89.06472015 30.71054459 -80.19694519
88.65383911 30.88442230 -79.99800110
89.40592194 30.47093582 -80.48738861
90.53446960 29.85948563 -80.38497162
88.63204956 30.80708694 -79.54596710
91.79063416 29.17285919 -80.22417450
92.19226074 28.87944794 -80.35356140
91.05602264 29.45494461 -80.25526428
90.17517090 29.87995338 -80.42931366
91.43885803 29.14421272 -80.26475525
88.10760498 30.85464478 -79.70052338
89.12841797 30.28014374 -80.11994171
91.85461426 28.84788513 -80.31568909
90.65666199 29.46339035 -80.36841583
89.90060425 29.84596252 -80.51280212
88.53494263 30.54280853 -79.95106506
89.48114014 30.05581856 -80.39234924
91.06027222 29.13307571 -80.40447998
90.25007629 29.48793793 -80.44039154
88.79530334 30.20133209 -80.03994751
91.51314545 28.76629639 -80.26120758
91.90397644 28.50385094 -80.39308167
89.14569855 29.93376541 -80.24443817
89.56880951 29.70732498 -80.40370178
90.71158600 29.11178207 -80.42855072
88.03216553 30.46525955 -79.59504700
89.92785645 29.48808289 -80.47002411
88.45220947 30.18343353 -79.92398834
91.00017548 28.80195808 -80.49642181
88.83770752 29.90972710 -80.21513367
90.35006714 29.08828163 -80.44055176
91.56737518 28.45122147 -80.39101410
89.22621155 29.63019562 -80.32510376
90.77891541 28.79021263 -80.52673340
89.61330414 29.36649513 -80.44966888
87.90620422 30.19212723 -79.58445740
89.97160339 29.11743927 -80.45384979
88.49744415 29.83829117 -80.19728851
91.06927490 28.47065353 -80.49485779
88.84860229 29.60151672 -80.43151855
87.74082947 30.12110138 -79.70093536
90.42570496 28.72889328 -80.48916626
91.58926392 28.11693764 -80.48064423
89.24856567 29.30440331 -80.47110748
88.09418488 29.88084793 -79.94038391
90.82487488 28.44807816 -80.49475098
89.67539215 28.99797440 -80.44392395
88.53342438 29.53293610 -80.32827759
91.13214111 28.15383911 -80.54761505
88.92809296 29.29783630 -80.46897125
90.05465698 28.70015335 -80.49770355
90.47460938 28.38536835 -80.48645020
89.31452179 28.97766113 -80.46884155
90.90199280 28.14155197 -80.52542114
88.15621948 29.55248451 -80.16368866
89.70188904 28.66245842 -80.52725220
88.59042358 29.17618752 -80.35927582
91.25241089 27.79298592 -80.51863861
87.79272461 29.58198929 -80.08681488
90.11163330 28.34446335 -80.51395416
88.98730469 28.92128372 -80.48329163
85.85758209 35.77269745 -79.77580261
88.19511414 34.51826477 -79.30339813
87.53205109 34.82525635 -79.39913177
89.24389648 33.89878082 -79.22553253
88.62133026 34.20882797 -79.47192383
87.89548492 34.52517700 -79.54138184
85.53248596 35.73091125 -79.84062958
86.67027283 35.08707428 -79.14514923
87.19625092 34.80430603 -79.50090027
88.90895081 33.86628723 -79.41616058
89.44801331 33.56442261 -79.56499481
88.66018677 33.96520233 -79.54391479
88.20329285 34.19268799 -79.36077118
85.61930847 35.51856232 -79.80220032
86.43521118 35.06305695 -79.28436279
87.57563782 34.47028351 -79.69392395
86.89450073 34.81989288 -79.66503143
87.91276550 34.19092560 -79.53519440
86.09440613 35.05871582 -79.32133484
86.52151489 34.82071304 -79.63996887
88.94636536 33.54133224 -79.33823395
88.27259827 33.86185455 -79.47186279
87.34466553 34.33010864 -79.94301605
87.57289886 34.18836212 -79.90792084
86.98477173 34.48946762 -79.84703827
85.82360840 35.05751801 -79.54273224
86.10331726 34.86719131 -79.52127838
85.52070618 35.12013245 -79.81433105
86.63999939 34.51808929 -79.87580872
87.90319824 33.83897400 -79.44183350
87.75614929 33.88330841 -79.95892334
88.49735260 33.45227051 -79.22714233
88.89996338 33.22124481 -78.37757111
87.56086731 33.95261383 -80.70442200
89.05307007 33.14272308 -79.59195709
85.15190887 35.17091370 -79.72972870
85.84803772 34.77119827 -79.63528442
86.95864105 34.17024994 -79.94384766
88.24957275 33.48226166 -79.33937836
88.68334961 33.19474030 -78.56825256
86.22041321 34.47822952 -79.88729858
88.67794800 33.13528442 -79.33332062
85.51164246 34.75347900 -79.72463226
87.55883789 33.65668488 -79.82088470
87.84381866 33.49443054 -79.33493042
85.86272430 34.43788147 -79.73884583
88.28767395 33.10879517 -79.07926941
85.16394043 34.73985291 -79.72686768
86.90020752 33.80395508 -79.63468170
88.71203613 32.83450317 -79.37070465
86.89278412 33.76639557 -79.38237762
86.27803040 34.05140686 -79.75125885
85.54497528 34.42615128 -79.81027222
86.52867126 33.90605927 -79.62014008
86.39039612 33.96590424 -79.66374207
87.88273621 33.14653397 -79.30661774
87.22288513 33.47373199 -79.61791229
87.59748840 33.28224564 -80.77481079
85.89689636 34.10403442 -79.78775787
88.79628754 32.58758163 -79.46872711
88.29734802 32.79319763 -79.27858734
85.19596863 34.40590668 -79.90409851
86.26844025 33.83885956 -79.79056549
87.50157166 33.18494415 -79.53585815
87.06888580 33.30978775 -80.12405396
85.52679443 34.10083771 -79.83823395
86.71419525 33.47070313 -80.03530884
87.17462921 33.21878052 -80.45710754
87.90077209 32.78836060 -79.31068420
85.92703247 33.80628204 -79.83725739
84.80236816 34.31494522 -79.88141632
88.33701324 32.46293640 -79.35945892
85.20345306 34.08475113 -79.84882355
86.29443359 33.48884583 -79.96588898
87.54112244 32.81339645 -79.46218109
87.23070526 32.94638062 -79.83522797
85.61380005 33.78306580 -79.99822235
87.24529266 32.91930389 -80.73872375
88.61115265 32.16352463 -79.28382874
86.67266846 33.15173721 -79.98890686
87.98788452 32.43595505 -79.51221466
86.00128937 33.47280884 -80.11018372
84.85755920 34.03281784 -79.81584930
88.30459595 32.16849518 -79.55625916
85.25736237 33.74611664 -79.97422791
86.90188599 32.89331055 -80.71517944
86.36158752 33.15579605 -80.03133392
87.60949707 32.45220184 -79.49432373
85.62991333 33.43595123 -80.03211975
87.94090271 32.16033936 -79.74205017
84.93414307 33.70359421 -79.99257660
84.47532654 33.91695023 -79.70462036
87.25672913 32.45211792 -79.61468506
86.92328644 32.62230301 -79.90504456
88.38519287 31.84228134 -79.67572784
87.69606018 32.15724182 -79.65457153
86.08102417 33.00391006 -80.23995209
85.26897430 33.39246368 -80.03132629
86.41490173 32.78313828 -80.14875031
84.55201721 33.69918442 -79.84590912
85.72636414 33.06676865 -80.05541229
88.03770447 31.83300018 -79.60595703
86.65087891 32.48432922 -80.10099792
87.40069580 32.07886505 -79.79817963
87.05383301 32.21115494 -79.76247406
85.40208435 33.03202820 -80.03897858
87.62176514 31.83254051 -79.50664520
84.52254486 33.36943436 -79.90224457
88.12485504 31.48861694 -79.78380585
85.74336243 32.72489929 -80.08184814
86.36518860 32.38878632 -79.61314392
87.28726196 31.90220070 -79.72127533
84.89382935 33.05824280 -79.91677094
86.66246033 32.13265228 -79.80012512
85.95634460 32.42359161 -79.82857513
84.17951965 33.31673431 -79.80067444
87.67146301 31.47282028 -79.64936066
86.40432739 32.12570190 -80.04519653
86.94529724 31.82567787 -79.77696228
85.30838776 32.68257141 -80.17503357
84.62515259 32.99287415 -80.16618347
88.06537628 31.19167328 -79.72950745
84.96863556 32.79933167 -80.65702820
86.59535217 31.92448616 -80.11145782
85.56019592 32.40153503 -80.18552399
87.33792114 31.45533180 -79.71739960
84.35037231 33.01165390 -80.03263855
85.41400146 32.39809418 -80.05714417
85.09861755 32.53310013 -80.16245270
84.94995117 32.59604645 -80.37978363
86.03197479 32.02613068 -80.09304810
87.03686523 31.45348740 -79.75202179
87.73027039 31.08382797 -79.86533356
84.33797455 32.70018005 -79.93598938
85.63034058 31.99972153 -80.16189575
87.71258545 30.90381050 -79.76005554
84.70947266 32.47268295 -80.11725616
86.67170715 31.44422913 -79.78820038
86.09095764 31.72879410 -80.17059326
85.52778625 31.98898506 -80.31494904
87.06613159 31.13687325 -79.78669739
87.43309021 30.88035202 -79.84486389
86.36674500 31.41953468 -79.94875336
85.73028564 31.75713730 -80.46611023
85.00253296 32.05135345 -80.12277985
86.06190491 31.48291016 -80.27578735
85.59398651 31.73273087 -80.62069702
86.72565460 31.08558464 -79.97893524
85.76248932 31.55698013 -80.48385620
84.19319153 32.31395721 -79.80453491
87.69560242 30.44269180 -79.63568878
87.05902100 30.77112198 -79.87983704
86.41499329 31.10590553 -80.11098480
84.61360931 32.01936340 -79.98242950
85.19804382 31.72059059 -80.46846771
85.51866150 31.54280090 -80.54973602
87.34648895 30.45396996 -79.75633240
83.84620667 32.26641083 -79.68241882
86.73188782 30.76617622 -80.04677582
86.05731964 31.08933640 -80.17128754
87.00556946 30.56815338 -80.05975342
86.44766235 30.77715302 -80.21581268
85.08129883 31.48238373 -80.35889435
84.66573334 31.64396095 -80.31346130
85.78042603 31.05607986 -80.25615692
84.26629639 31.82981873 -79.95458984
83.87765503 32.00439072 -79.62750244
87.43925476 30.13345528 -79.91973877
86.81410980 30.46236420 -80.16151428
85.35943604 31.16422844 -80.45685577
86.12420654 30.75934982 -80.28662872
86.50397491 30.42498398 -80.36497498
83.55470276 31.92629242 -79.46779633
84.70753479 31.33050728 -80.40745544
83.94624329 31.70398903 -79.76930237
84.33251953 31.49989891 -80.02336121
85.77113342 30.74406433 -80.40513611
85.03418732 31.10953903 -80.37193298
87.03120422 30.04423714 -79.73031616
86.73895264 30.13710213 -80.07496643
87.39370728 29.77963257 -79.88729095
86.28543854 30.28524208 -80.18971252
81.42500305 38.06793976 -79.29616547
82.98244476 37.24290848 -79.61753845
83.38410187 36.95146942 -79.74372101
81.85937500 37.71509171 -79.23873901
83.73371887 36.71450043 -79.85206604
84.62628174 36.23133087 -79.66868591
82.65262604 37.15059662 -79.52755737
82.27613831 37.33715057 -79.22626495
84.10697937 36.39551544 -79.91797638
83.02416992 36.90049744 -79.69174957
81.52291107 37.63692474 -79.25933075
83.39385986 36.67463684 -79.89866638
85.19470215 35.70689392 -79.80288696
84.68400574 35.94940186 -79.68199921
83.80245972 36.35907364 -79.96191406
82.71556854 36.85334778 -79.70286560
84.19043732 36.05840302 -80.01953888
81.96665955 37.19246292 -79.06418610
82.32297516 36.96491241 -79.24057770
83.09638977 36.56665039 -79.83588409
85.18764496 35.45162964 -79.82742310
84.72237396 35.65138626 -79.82531738
83.44990540 36.31141281 -79.92292023
81.64570618 37.15795135 -79.01262665
83.85317993 36.03050995 -80.08850098
82.76924133 36.51713181 -79.76331329
82.03077698 36.86389923 -79.07280731
81.16173553 37.30887604 -79.46036530
84.30725098 35.64914703 -79.98609161
82.38322449 36.63289642 -79.30506897
83.10083008 36.27564621 -80.02899170
84.78100586 35.36115265 -80.02255249
84.54403687 35.41441727 -80.03813171
83.53149414 35.93004990 -79.99853516
83.87693024 35.75044250 -80.15421295
84.72142029 35.28303528 -79.86465454
84.94361115 35.14992523 -79.80405426
81.69757080 36.80857086 -79.04657745
82.06867981 36.56817245 -79.25446320
82.81332397 36.17889786 -79.84587860
81.25106812 36.98001480 -79.57619476
83.12490845 36.01170731 -80.06892395
82.43292999 36.33064270 -79.45373535
84.40181732 35.19390106 -79.80529022
81.71594238 36.52739716 -79.27172089
83.59567261 35.55895996 -79.95475769
80.90928650 36.90992737 -79.52264404
83.97070313 35.32464218 -80.10285187
82.46157074 36.08177948 -79.79170990
82.85296631 35.85058594 -79.89976501
82.13006592 36.21066284 -79.28954315
81.31910706 36.59227371 -79.53895569
83.23577118 35.58172226 -79.94387817
81.72286224 36.28997040 -79.59622192
80.93409729 36.62778473 -79.73778534
84.45893097 34.78458786 -79.71378326
82.50666809 35.78151703 -79.91780853
82.13786316 35.96326447 -79.58042908
83.68436432 35.15089035 -79.84064484
84.72045898 34.60677719 -79.87117767
82.91000366 35.44868469 -79.81632996
81.39975739 36.18737411 -79.46382141
81.77175903 35.95583344 -79.68958282
80.96183777 36.34092712 -79.94634247
80.61718750 36.51134872 -79.57228088
84.14639282 34.67142868 -79.56374359
83.35217285 35.08791351 -79.71193695
82.16547394 35.67547989 -79.80022430
82.52225494 35.48144531 -79.89698792
84.46179962 34.29043579 -79.70732117
81.45066833 35.84901428 -79.54807281
83.81472015 34.59780884 -79.47092438
80.62631226 36.26573944 -79.87971497
83.01174927 35.00856781 -79.64437866
81.82627869 35.60948944 -79.75547791
82.20060730 35.36728668 -79.89788818
84.20794678 34.31241608 -79.59454346
81.06204224 35.89269257 -79.76710510
82.65234375 34.97251129 -79.63323212
83.50133514 34.48667145 -79.30204773
81.48803711 35.54087830 -79.70509338
81.83907318 35.35009003 -80.02994537
80.67009735 35.94311523 -80.00243378
83.89819336 34.24672318 -79.46073151
84.02165222 34.11006165 -79.44194031
83.05763245 34.60129166 -79.51529694
81.08930969 35.60688400 -79.97818756
82.27554321 34.94183350 -79.71404266
84.17227173 33.88784027 -79.51926422
81.50807953 35.27046585 -79.95505524
80.33598328 35.86491776 -79.92851257
82.74792480 34.54318237 -79.51187897
81.89161682 34.97710419 -79.97094727
83.57795715 34.04734039 -79.24005127
80.75944519 35.51906204 -79.88094330
81.13907623 35.27097321 -80.06877136
81.50256348 35.01389313 -80.25369263
83.19445801 34.10877991 -79.34667969
80.34248352 35.60068130 -80.19973755
82.38928223 34.49869156 -79.55889130
84.15222931 33.51295853 -79.69246674
80.76660156 35.27795410 -80.20007324
83.62043762 33.76305389 -79.31785583
81.16248322 34.98552704 -80.28538513
82.85049438 34.06088257 -79.37277222
82.02366638 34.46028900 -79.64302826
80.39590454 35.26794052 -80.27307892
81.51229095 34.66789627 -80.26086426
83.27752686 33.72267914 -79.38546753
80.80344391 34.97061920 -80.35982513
83.66827393 33.45019150 -79.48533630
82.44534302 34.08227158 -79.46950531
81.20587921 34.63237000 -80.34539032
80.04118347 35.23015213 -80.28367615
82.88890076 33.69860458 -79.42961884
80.47256470 34.88472366 -80.26025391
82.08987427 34.02175903 -79.49528503
81.56286621 34.28945923 -80.17958832
83.41230774 33.27045059 -79.31293488
80.85894012 34.61556625 -80.41248322
83.72485352 33.08195496 -79.50817108
82.49210358 33.71541595 -79.55908203
81.18988037 34.34914398 -80.51132965
80.11065674 34.87319183 -80.32379913
82.88664246 33.39675903 -79.62892914
82.14442444 33.68822479 -79.56197357
80.52914429 34.53382111 -80.31814575
82.58993530 33.41113281 -79.59426117
83.42662811 32.96424866 -79.33458710
80.89844513 34.30437088 -80.59912872
81.70079041 33.80302429 -79.85276031
79.78958893 34.76660156 -80.22102356
80.16844177 34.52484894 -80.37237549
81.21113586 33.98135376 -80.36585236
82.89498901 33.07229614 -79.72869873
83.68666077 32.61253357 -79.46919250
80.58047485 34.22563171 -80.47859192
82.26150513 33.31903076 -79.53535461
82.68112183 33.04896545 -79.65267944
80.86524200 34.00682068 -80.71276093
83.51882935 32.58256531 -79.36585999
82.91505432 32.86223602 -79.74186707
79.84555054 34.41916656 -80.28871918
81.84854126 33.31872559 -79.61894989
80.65948486 33.90664673 -80.59247589
80.24593353 34.08250427 -80.28967285
81.35096741 33.45504761 -79.99438477
82.33889008 32.91951752 -79.53900146
82.73980713 32.70888519 -79.65373993
81.26568604 33.41983795 -79.72052002
83.46101379 32.20847321 -79.43381500
79.93302917 34.01401138 -80.22354126
80.70932007 33.61201096 -80.64348602
81.97520447 32.86350632 -79.50850677
80.31105042 33.74494934 -80.33618164
82.40124512 32.58158875 -79.64517975
83.23229980 32.13965225 -79.38105774
80.93458557 33.30857086 -80.46427155
79.57078552 34.01360703 -80.36274719
82.71218872 32.29744720 -79.61417389
81.45548248 32.93224335 -79.67718506
79.95550537 33.70677185 -80.38146973
80.78570557 33.20481491 -80.38533783
80.36116028 33.40673828 -80.39035034
82.04313660 32.49334717 -79.56647491
83.29748535 31.82935715 -79.42414856
78.52538300 39.57197571 -79.52866364
80.62705994 38.37606049 -79.38139343
79.73974609 38.81123352 -79.43511200
79.07570648 39.13843536 -79.56347656
81.06356049 38.02785492 -79.36513519
78.16488647 39.48947906 -79.62719727
79.41908264 38.80493164 -79.49536896
78.56034851 39.23031998 -79.58125305
80.24815369 38.30000687 -79.40093994
77.21517944 39.84880829 -79.67209625
77.73799896 39.54328918 -79.47174072
80.63227844 38.02864075 -79.48293304
79.07858276 38.77718353 -79.56056213
77.54832458 39.56512833 -79.58580017
79.78532410 38.39962006 -79.54809570
81.11609650 37.65976715 -79.39424896
78.20158386 39.13893127 -79.64734650
79.42497253 38.45004272 -79.55568695
80.29988861 37.96722412 -79.47111511
78.55108643 38.87916565 -79.61519623
78.73133850 38.77478409 -79.63411713
80.68132019 37.71878052 -79.56292725
77.24601746 39.48905945 -79.67575073
79.94964600 38.03440857 -79.55594635
79.09930420 38.41983414 -79.62524414
78.42577362 38.73712921 -79.74160004
78.21580505 38.83168411 -79.64196014
77.48767090 39.20350266 -79.58121490
80.36059570 37.67473602 -79.61724854
77.72029877 39.01924133 -79.70232391
79.45710754 38.08908081 -79.60157013
79.63094330 37.96874237 -79.60388184
80.77946472 37.35582352 -79.57376099
78.76148987 38.40789032 -79.69198608
76.86805725 39.36401367 -79.63370514
78.53235626 38.44792557 -79.74819946
80.01399231 37.66859818 -79.70773315
77.81741333 38.76129913 -79.74469757
79.12537384 38.05709457 -79.69506073
77.19705200 39.03697968 -79.72262573
80.40228271 37.35595322 -79.67396545
78.24085999 38.46047211 -79.64639282
79.27334595 37.91973877 -79.66622925
77.46965790 38.80284882 -79.57651520
78.82789612 38.06678009 -79.74640656
79.69602966 37.60253906 -79.68942261
78.12373352 38.40722656 -79.63496399
80.05175018 37.38667297 -79.78345490
76.82853699 39.05469513 -79.62960052
78.62011719 38.09932709 -79.73034668
77.85476685 38.47591400 -79.58895874
77.26000214 38.73328781 -79.59252167
79.34326172 37.57355499 -79.72660828
80.53228760 36.91860962 -79.60280609
79.74504089 37.27096939 -79.79393005
78.15095520 38.01683807 -79.79262543
77.33189392 38.43294907 -79.64434814
80.17866516 36.87530518 -79.61839294
79.01538849 37.46380615 -79.71705627
79.40753174 37.21873474 -79.79566956
77.82138062 37.99678421 -79.81221771
79.76419067 36.92027283 -79.85466003
77.02760315 38.33728409 -79.69663239
78.62785339 37.50618744 -79.83564758
78.17585754 37.70486832 -79.90962982
77.45800781 38.01952744 -79.79465485
79.09278870 37.08985138 -79.69174194
80.26130676 36.47773743 -79.60474396
77.87071228 37.70775604 -79.93261719
79.44837952 36.88365555 -79.90027618
79.80723572 36.56783676 -79.91210175
77.08566284 37.97628784 -79.77256775
78.66784668 37.14740753 -79.85033417
76.37268829 38.33889389 -79.78437042
77.54215240 37.65444946 -79.88457489
80.29671478 36.17756653 -79.78186798
79.11408997 36.77563858 -79.75473022
77.86576843 37.41717529 -79.97091675
76.74678040 37.96903610 -79.82001495
79.49374390 36.53750229 -79.97768402
78.18256378 37.19697952 -80.13015747
77.13923645 37.65804291 -79.78432465
77.56898499 37.43074417 -79.93887329
79.88000488 36.22056580 -79.99201965
77.97875977 37.16542053 -80.06641388
76.40403748 37.97048187 -79.83361816
78.82231140 36.70075226 -79.71060944
79.15763855 36.46740723 -79.93953705
76.77536774 37.67736816 -79.84584045
79.51232147 36.23632813 -80.15026855
78.14713287 36.92748260 -80.22013855
77.19869232 37.35472488 -79.82236481
77.69093323 37.08803940 -80.00125122
79.94274902 35.89349365 -80.11393738
76.43525696 37.67313766 -79.87107086
78.02238464 36.85128784 -80.12497711
78.80172729 36.41601181 -79.92893219
79.16992188 36.19339752 -80.19232178
77.50769806 37.04876709 -79.90727234
78.34184265 36.55229950 -80.13532257
79.56826782 35.89147186 -80.19183350
76.79954529 37.32118225 -79.85975647
76.10925293 37.67049408 -79.89576721
79.98422241 35.58848572 -80.27021027
78.83471680 36.11809158 -80.12979126
77.41490173 36.82631683 -79.72027588
77.10958862 36.94759750 -79.78507233
76.43154907 37.30011749 -79.86241150
79.20926666 35.86321640 -80.25440216
78.07479858 36.43044662 -80.08268738
76.80221558 37.00322723 -79.96559143
79.63840485 35.53440857 -80.25586700
78.46951294 36.13591385 -80.20067596
77.24833679 36.71812820 -80.01509857
76.06639099 37.30571747 -79.88497925
78.86500549 35.82612610 -80.26535797
77.74341583 36.39160919 -80.09008026
77.39148712 36.55478287 -79.75727844
76.52151489 36.95172882 -80.02742004
79.25187683 35.52871323 -80.37047577
78.14015198 36.04003143 -80.13394165
79.66711426 35.22030640 -80.35725403
75.75418091 37.23908997 -79.96964264
76.82598114 36.66379547 -79.97666168
78.52233887 35.78658295 -80.24726868
76.11500549 36.94334793 -79.95694733
78.93939972 35.47566223 -80.30206299
77.40667725 36.24803543 -79.99447632
79.30419922 35.22990417 -80.47858429
77.73353577 36.01714706 -80.17166901
76.49514008 36.61983490 -80.06988525
78.16683960 35.70064545 -80.27299500
75.75592041 36.93355560 -80.06878662
76.96881104 36.29015350 -80.03603363
78.56320953 35.42302704 -80.27944946
76.77175903 36.29080200 -80.08896637
78.99912262 35.11840057 -80.38028717
76.15117645 36.59104919 -80.04762268
77.46720886 35.90239716 -80.12796783
76.53005981 36.38118362 -80.11946869
76.64982605 36.28990555 -80.07683563
77.77920532 35.67014313 -80.27223969
79.32371521 34.86550903 -80.48996735
75.85494995 36.64320755 -80.11445618
76.26405334 36.37809753 -80.19953918
77.08480835 35.90435028 -80.07824707
78.12966919 35.35695648 -80.41731262
77.52703857 35.63866425 -80.22152710
78.63719177 35.02423096 -80.26371002
79.03659058 34.78490448 -80.51020050
77.90095520 35.37145233 -80.36887360
75.47010803 36.61598587 -80.08933258
76.52999878 35.99874115 -80.12873840
79.39041901 34.50793457 -80.48630524
75.86811066 36.31884766 -80.20545197
77.16050720 35.54951859 -80.18011475
78.13145447 35.01945496 -80.48362732
77.55940247 35.30553818 -80.30200195
78.65652466 34.69562149 -80.45436859
79.00807190 34.50650024 -80.56791687
76.36091614 35.83998489 -80.16762543
76.13597107 35.93994904 -80.07576752
75.48590088 36.27474213 -80.18090057
76.77655029 35.54286575 -80.19847107
75.84672546 35.96340942 -80.17899323
77.21710205 35.23460388 -80.30294800
78.11105347 34.74176788 -80.64559937
77.60688782 34.97393799 -80.41693878
78.08056641 34.70100403 -80.68311310
78.67391205 34.34631729 -80.62801361
76.42530823 35.48780823 -80.25249481
79.14479828 34.07931519 -80.56306458
75.52378845 35.93210602 -80.30239105
76.86482239 39.74657440 -79.65612030
76.70336914 39.34642410 -79.73318481
76.30393982 39.30899048 -79.65449524
76.17454529 39.30805206 -79.64317322
76.58329010 39.02191162 -79.56654358
75.96635437 39.29492188 -79.68927002
76.36109161 38.95957184 -79.75421143
76.23609924 39.00230026 -79.63898468
75.63754272 39.31157303 -79.80596924
74.74175262 39.74277496 -80.06989288
75.30998993 39.31460571 -79.89449310
75.99383545 38.94739532 -79.75155640
74.41533661 39.70823669 -80.08364868
76.39194489 38.64335632 -79.83396149
74.80314636 39.41430664 -79.97610474
75.65088654 38.95383453 -79.81880188
74.08192444 39.68430328 -80.07522583
76.10311890 38.62024307 -79.86164856
75.34075165 38.96726227 -79.85054779
74.45813751 39.37883759 -80.01268005
74.84080505 39.09617233 -79.92884827
75.71121216 38.61773682 -79.78709412
73.75423431 39.63373947 -80.11898041
74.11618805 39.33816528 -80.06321716
76.04188538 38.30467987 -79.79641724
73.37324524 39.63648224 -80.01036072
74.49395752 39.05270386 -79.98815155
75.31976318 38.61448669 -79.80617523
74.89450073 38.78970337 -79.87119293
73.09812927 39.65462494 -80.06058502
73.77584839 39.30137634 -80.07859802
74.99397278 38.62578583 -79.90494537
75.72611237 38.22681046 -79.83039856
74.14697266 39.01530457 -80.00620270
73.43640137 39.33250427 -80.02360535
74.54803467 38.73262787 -79.97210693
76.04533386 37.94483948 -79.87536621
75.37992096 38.26571655 -79.83303833
72.78196716 39.60986328 -80.16568756
75.80461121 37.96646500 -79.90063477
73.82131958 38.97324753 -79.99160004
73.13632202 39.27740097 -80.12629700
75.03334045 38.26619720 -79.89469910
74.17176056 38.69638062 -80.02515411
73.51029205 38.97199249 -80.07619476
75.41339111 37.92040253 -79.89147949
73.85885620 38.68369293 -80.03599548
72.79664612 39.21637726 -80.27619171
73.98442841 38.57703400 -80.09581757
75.75340271 37.63527298 -79.88558960
72.11769104 39.53410721 -80.39764404
73.16195679 38.89526749 -80.21591949
75.03287506 37.88721466 -79.96958923
74.35035706 38.23033142 -80.00700378
73.57168579 38.59262848 -80.10812378
75.37580109 37.58406067 -79.98845673
72.34342957 39.17155457 -80.50685883
71.97056580 39.35706329 -80.65428925
74.72692871 37.85401154 -80.08102417
73.99191284 38.22341919 -80.03314209
71.66981506 39.35523224 -80.70716858
75.06247711 37.57401276 -80.08940125
74.41188049 37.86394882 -80.06719208
73.64639282 38.23855591 -80.18236542
74.78697968 37.59678650 -80.07382202
75.44676208 37.24829865 -80.03641510
73.02693176 38.51117325 -80.37247467
72.11365509 38.97388458 -80.66915894
72.38504028 38.80627823 -80.61558533
73.38072205 38.20766449 -80.27391052
72.69242859 38.56481171 -80.51022339
75.08811951 37.29409790 -80.03353119
74.02316284 37.84891129 -80.08538818
75.53199768 36.97563171 -80.09809875
72.40645599 38.59777451 -80.60398102
73.06659698 38.19984055 -80.38684845
74.40316772 37.48578262 -80.14244080
73.68386078 37.84476471 -80.23165894
72.17577362 38.63267517 -80.68478394
74.67535400 37.25776291 -80.04557800
71.43769073 38.95739746 -80.75470734
72.72450256 38.20069504 -80.41557312
75.11484528 36.93842697 -80.09368896
73.38870239 37.83196259 -80.28145599
71.88940430 38.61917877 -80.71637726
74.08899689 37.43536377 -80.32157898
74.18188477 37.38007355 -80.31740570
73.76042175 37.51548767 -80.29002380
74.32312012 37.20857239 -80.26687622
72.37543488 38.21149445 -80.47988892
74.74983215 36.96334839 -80.18698883
73.07958984 37.82758713 -80.40826416
74.49580383 36.96666718 -80.36774445
73.39585876 37.51784515 -80.36280823
71.43942261 38.54168701 -80.73467255
72.06096649 38.19147110 -80.58303833
73.82305908 37.26929092 -80.41508484
72.73960876 37.81862640 -80.40936279
75.09488678 36.58123779 -80.12355804
73.13844299 37.53847504 -80.46040344
71.73284912 38.16415405 -80.64720154
72.38876343 37.81337738 -80.47983551
73.46059418 37.21671677 -80.41077423
74.09381104 36.88276672 -80.25444031
74.74114990 36.52517319 -80.09330750
72.80084229 37.51090240 -80.48146057
75.09644318 36.27726746 -80.20542908
74.85842896 36.38167191 -80.20558929
74.46015930 36.56098175 -80.25065613
71.43098450 38.14341736 -80.72577667
72.05499268 37.81587601 -80.60175323
73.11769104 37.21097565 -80.49555969
73.76817322 36.86746216 -80.30596924
70.35232544 39.72292328 -80.49142456
70.05687714 39.67763901 -80.46744537
69.71543121 39.57184219 -80.47164917
70.36831665 39.12802887 -80.71847534
70.03962708 39.26889801 -80.54900360
70.78079224 38.80655289 -80.75397491
69.34516144 39.53426361 -80.43249512
71.12471008 38.51540375 -80.73995972
68.99824524 39.56355286 -80.33271027
70.35411835 38.76298523 -80.62779999
70.04826355 38.84909439 -80.54861450
70.78869629 38.45736694 -80.77147675
70.70707703 38.43499756 -80.67711639
192.16436768 -24.88826561 -78.02568817
191.06643677 -24.34057808 -78.23566437
190.29385376 -23.98626137 -78.16000366
192.54336548 -25.18570137 -77.90963745
191.41827393 -24.62943840 -78.15790558
190.73442078 -24.36104774 -78.20539093
191.83106995 -24.93726921 -78.06493378
189.95727539 -24.05726051 -78.25617218
192.20339966 -25.23814964 -77.92113495
